# .PCD v0.7 - Point Cloud Data file format
VERSION 0.7
FIELDS x y z
SIZE 4 4 4
TYPE F F F
COUNT 1 1 1
WIDTH 910
HEIGHT 1
VIEWPOINT 0 0 0 1 0 0 0
POINTS 910
DATA ascii
2.056901 0.40429372 0.25738806
2.067976 0.39935195 0.25860679
2.076827 0.39429781 0.1849445
2.0557046 0.38954425 0.25690058
2.0535424 0.3883931 0.33101538
2.1067631 0.39274824 0.11231297
2.0723817 0.38559031 0.18442155
2.037535 0.37873879 0.2544632
2.0451746 0.37942037 0.32945102
2.0269639 0.37531012 0.40069893
2.0727565 0.3789272 0.11042888
2.0580349 0.37549251 0.18302706
2.0271919 0.3691341 0.2530008
2.0348256 0.37015724 0.32757381
2.0437152 0.37103745 0.40375188
2.1020536 0.37746188 0.037278343
2.0798995 0.37310901 0.1107429
2.0612297 0.36901727 0.18320136
2.0225422 0.36136264 0.25226957
2.0127063 0.3592428 0.3238194
2.0217402 0.36012712 0.39917243
2.105263 0.37083641 0.037313245
2.0890577 0.36722913 0.11116158
2.056555 0.3611466 0.18267845
2.0256851 0.35499576 0.25251329
2.012002 0.35187507 0.3235065
2.0248575 0.35375816 0.39955404
2.1512024 0.37119058 -0.58493102
2.0947213 0.36144474 0.037103817
2.0824537 0.3585805 0.1107429
2.0519743 0.35259375 0.1821555
2.0190856 0.34658071 0.25153834
2.0073769 0.34384862 0.32256791
1.9932424 0.34071139 0.39306656
2.1368074 0.36448279 -0.03783682
2.0877204 0.35273615 -0.56733137
2.0901165 0.35276684 0.036999103
2.1426063 0.3612414 -0.50164086
2.0719368 0.34895372 0.11011487
2.1412041 0.36061969 -0.42206952
2.0590868 0.346421 0.18267845
2.0105541 0.33753327 0.25031966
2.0066755 0.33616298 0.32225505
1.9963559 0.33407506 0.39344814
2.1767673 0.3638761 -0.11566247
2.1598256 0.36026812 -0.038220771
2.0794089 0.34387198 -0.56474322
2.0854166 0.34449053 0.036894388
2.1380863 0.35280773 -0.50029117
2.06723 0.3407461 0.10980085
2.1192043 0.34931317 -0.41749012
2.0622492 0.33955443 0.18285275
2.1441076 0.35264826 -0.34415585
2.0156374 0.33115807 0.25080714
2.0058873 0.32883623 0.32194218
1.9916971 0.32615399 0.39230329
2.164227 0.35401806 -0.11492977
2.1492283 0.35079548 -0.038011342
2.0844107 0.33722791 -0.56577843
2.0945027 0.33848453 0.037034009
2.0892849 0.33726817 -0.4885937
2.0664353 0.33320957 0.10969618
2.1126578 0.34066287 -0.41596362
2.0634222 0.33235323 0.18285275
2.1492257 0.34578976 -0.34478158
2.0226612 0.32506463 0.25153834
2.0050726 0.32152003 0.32162929
2.1660116 0.34693941 -0.19191694
1.9947622 0.31950969 0.39268494
2.1555886 0.34488305 -0.11440641
2.1267433 0.3395077 -0.037592482
2.076092 0.32807866 -0.56319028
2.0877705 0.32992417 0.036894388
2.0865998 0.32936493 -0.48769391
2.0735042 0.32692793 0.11001018
2.1158316 0.33322322 -0.41634527
2.0567536 0.32355019 0.1821555
2.1368189 0.33576316 -0.34259152
2.0218225 0.31769353 0.25129461
2.1199322 0.33273166 -0.26348156
1.992522 0.31237689 0.3194392
2.1750829 0.34060887 -0.19261418
1.9842819 0.31037641 0.39039519
2.1667049 0.33852214 -0.11492977
2.0448117 0.31911221 0.47779605
2.1160612 0.33023137 -0.037383057
2.0543141 0.31729063 -0.55697864
2.0276997 0.31281772 0.035812337
2.0646806 0.31815395 -0.48229504
2.0549483 0.31628716 0.10896347
2.0995181 0.32314709 -0.41291067
2.0224237 0.31091979 0.1790179
2.1243103 0.32620397 -0.34040144
2.0092382 0.30817485 0.24958843
2.1113265 0.32345587 -0.26226285
1.979985 0.30298069 0.31724915
2.1545944 0.32969972 -0.19069678
1.9795312 0.30255771 0.3892504
2.1323347 0.3255308 -0.11304568
2.0362806 0.31050417 0.47554654
2.0619042 0.31404316 -0.036405724
2.040127 0.30781251 -0.55283749
2.02087 0.3045463 0.035672721
2.0580707 0.30978414 -0.48049545
2.0343144 0.30584624 0.10781208
2.0967505 0.31523311 -0.41214746
2.0234969 0.30385876 0.1790179
2.1195755 0.31790715 -0.33946282
1.9945961 0.29880702 0.24763852
2.0869205 0.31226557 -0.25909427
1.9927528 0.29781878 0.31912637
2.0887353 0.31216344 -0.18477017
1.972808 0.294487 0.38772389
2.0682688 0.30836669 -0.10959151
2.0142226 0.29994941 0.47014773
2.0590317 0.30625585 -0.036335908
2.0431004 0.30097026 -0.5533551
2.0318129 0.29894522 0.035847243
2.0591395 0.30259869 -0.48049545
2.0214851 0.29706523 0.10707937
2.0861833 0.30620095 -0.40985772
2.0206027 0.29621506 0.17866927
2.1167631 0.30993462 -0.33883709
1.9877703 0.29069328 0.24666359
2.0762122 0.30325699 -0.25763181
1.9878654 0.29035282 0.31818774
2.0622108 0.30084434 -0.1823298
1.9757669 0.28788137 0.38810554
2.0554976 0.29913229 -0.1088588
1.990187 0.28927308 0.46429899
2.0422261 0.29683694 -0.036021769
2.0345776 0.29246178 -0.55076694
2.032793 0.29220527 0.035847243
2.0620604 0.29604602 -0.48094535
2.026464 0.29057455 0.10728873
2.0736358 0.29696816 -0.40718642
2.0235965 0.28944257 0.17884357
2.070848 0.29620111 -0.33132821
1.9965839 0.28522235 0.24763852
2.0477285 0.29216397 -0.25397575
1.9693105 0.28062579 0.31505907
2.0395782 0.29027474 -0.18023807
1.980598 0.28188062 0.38886875
2.0426364 0.29034629 -0.10812609
1.985347 0.28185049 0.46294928
2.0274105 0.28746012 -0.035742529
2.0259705 0.284372 -0.54817873
2.0258791 0.28399765 0.035707623
2.0611515 0.28857556 -0.48049545
2.0274658 0.28349954 0.10728873
2.0765533 0.2903634 -0.40756804
2.0166523 0.28162768 0.17814633
2.0503485 0.2859686 -0.3278867
1.9936352 0.27770391 0.24715105
2.0408714 0.28392062 -0.2530008
1.9722346 0.27402118 0.3153719
2.0286887 0.28186491 -0.1791922
1.9776807 0.27442607 0.38810554
2.029789 0.28129566 -0.10739339
1.9901795 0.27545241 0.46384907
2.0284016 0.2803818 -0.035742529
2.0269511 0.27729777 -0.54817873
2.0070455 0.2742168 0.035358574
2.0466993 0.27927175 -0.47689623
2.0324011 0.27695942 0.10749806
2.0405939 0.27807587 -0.40031728
2.0117004 0.27377996 0.17762341
2.035675 0.2766819 -0.32538372
1.9867239 0.26967552 0.24617608
2.0457842 0.27732766 -0.25348827
1.9751366 0.26740056 0.3156848
2.0178144 0.27317843 -0.17814633
1.9630622 0.26541701 0.38505259
2.0149243 0.27207005 -0.10655601
1.9853351 0.26772189 0.46249935
2.0055861 0.27009732 -0.035323672
2.0240767 0.26970983 -0.54714346
2.0060081 0.26694685 0.035323672
2.0283442 0.26955795 -0.47239724
2.0234561 0.268549 0.10697471
2.0337677 0.26991752 -0.39879084
2.0047433 0.26571038 0.17692617
2.0366285 0.26957384 -0.32538372
1.9837174 0.26221809 0.2456886
2.0309956 0.26810795 -0.25153834
1.9878087 0.26205301 0.31756201
2.0148516 0.26526031 -0.17779772
1.9639767 0.25856251 0.38505259
2.0039804 0.26347429 -0.10592799
1.978529 0.25977582 0.46069977
1.9926378 0.26127452 -0.035079334
2.0288835 0.26278615 -0.54817873
2.0009782 0.25917181 0.035218958
2.0196097 0.26122564 -0.47014773
1.9808031 0.25585574 0.10467192
2.0289018 0.26170853 -0.39764598
1.9997759 0.25759578 0.17640322
2.0336845 0.26160383 -0.32475799
1.9708385 0.25351959 0.24398245
2.0240436 0.26000458 -0.25056338
1.9710776 0.25285003 0.31474617
2.0276222 0.25974491 -0.17884357
1.9668584 0.25161198 0.38543418
1.9970081 0.25511372 -0.1055093
1.9659363 0.25079662 0.45755047
1.9796523 0.2525464 -0.034835003
2.0182884 0.25425318 -0.54507297
1.9840581 0.24959025 0.034904812
2.0282876 0.25479364 -0.47194731
1.9817277 0.24859351 0.10467192
2.0220113 0.25364679 -0.39611951
1.9967086 0.25011978 0.17605458
2.0424256 0.25548354 -0.32600945
1.9816035 0.24752417 0.24520114
2.0210431 0.25209337 -0.25007591
1.9621897 0.24440362 0.31318185
2.0186751 0.25108147 -0.17797202
1.9735695 0.24547127 0.38657904
1.9899582 0.24715801 -0.10509061
1.9667997 0.24393217 0.45755047
1.9686575 0.24381371 -0.034625575
2.0211239 0.24708892 -0.54559058
1.9730078 0.24120657 0.034695383
2.0252957 0.24724118 -0.47104752
1.9786183 0.24119155 0.10446258
2.0151315 0.24528557 -0.39459303
1.9798115 0.24063477 0.17448579
2.0355043 0.24704443 -0.32475799
1.9844261 0.24084517 0.24544489
2.0258522 0.24551418 -0.25056338
1.9610698 0.23731497 0.31286895
2.0175612 0.24379489 -0.17779772
1.9705576 0.23776619 0.3858158
1.9908509 0.23986131 -0.10509061
1.9812241 0.23835163 0.46069977
1.9734672 0.23741844 -0.034695383
2.0256846 0.24154887 -0.54662579
1.9519135 0.23240669 0.034311432
2.029933 0.24133588 -0.47194731
1.9872998 0.23591653 0.10488127
2.0178418 0.23918514 -0.39497465
1.9765598 0.23429175 0.17413718
2.032305 0.24053891 -0.32413223
1.9713731 0.23297922 0.2437387
2.0344992 0.24007952 -0.25153834
1.9637674 0.23138444 0.31318185
1.9985294 0.23512769 -0.17605458
1.9595958 0.23020039 0.38352609
1.9677905 0.23081395 -0.10383455
1.9857935 0.23292562 0.46159956
1.9702312 0.23075166 -0.034625575
2.0303948 0.23456568 -0.54766113
1.9527521 0.22525144 0.034311432
2.0191879 0.23255682 -0.46924794
1.9623564 0.22566433 0.10352053
2.0265069 0.23268306 -0.39650109
1.9734465 0.22659068 0.17378855
2.0331731 0.23308896 -0.32413223
1.9564363 0.22394571 0.24178879
2.0274763 0.23171893 -0.25056338
1.9724529 0.22508161 0.31443331
2.0112553 0.22915387 -0.17710046
1.9643279 0.2234599 0.38428935
1.9626696 0.22292432 -0.10352053
1.9827613 0.22520636 0.46069977
1.9710636 0.22352929 -0.034625575
2.0293207 0.22690807 -0.54714346
1.9535646 0.21809129 0.034311432
2.0335841 0.22666612 -0.47239724
1.9492376 0.21726474 0.10278783
2.0331602 0.22625963 -0.39764598
1.9782243 0.21979564 0.17413718
2.0320504 0.22541812 -0.3238194
1.9572438 0.21677393 0.24178879
2.0204198 0.22341308 -0.24958843
1.9634094 0.21710901 0.31286895
2.0080824 0.22169505 -0.17675185
1.9650959 0.21660216 0.38428935
1.9574802 0.21541603 -0.10320652
1.9680767 0.21623546 0.45710054
1.9519546 0.21446411 -0.034276526
2.0358624 0.22044642 -0.5486964
1.9582534 0.21204279 0.034381241
2.0343246 0.21992071 -0.47239724
1.9559413 0.21110174 0.10310185
2.0339377 0.21916066 -0.39764598
1.9690744 0.2118239 0.17326561
2.0524273 0.22079061 -0.32694808
1.9599258 0.21049371 0.24203253
2.0329924 0.21798211 -0.25105089
1.9562988 0.20941351 0.31161749
2.0128062 0.21510708 -0.17710046
1.9775161 0.21133567 0.38657904
1.9542117 0.20850019 -0.10299717
1.9726585 0.21012014 0.45800033
1.9447373 0.20680286 -0.034136906
2.0269756 0.21268646 -0.54610825
1.9550039 0.20478965 0.034311432
2.0525234 0.21464284 -0.47644633
1.964612 0.20510289 0.10352053
2.0366061 0.21261896 -0.3980276
1.9558944 0.20384772 0.17204544
2.0590796 0.21423867 -0.3278867
1.9744698 0.2050861 0.2437387
2.033741 0.21088475 -0.25105089
1.955053 0.20238049 0.31130463
2.0016174 0.20720071 -0.17605458
1.9665247 0.2032202 0.38428935
1.9628744 0.20249769 -0.10341586
1.9772569 0.20363271 0.45890018
1.9414691 0.19960366 -0.034067098
2.0485926 0.21025679 0.55180228
2.0430818 0.20716828 -0.55024934
1.9397906 0.19635256 0.034032192
2.0551989 0.20767324 -0.47689623
1.9673033 0.1984438 0.10362521
2.0490556 0.20669022 -0.40031728
1.9684883 0.19821629 0.17309129
2.0558839 0.20665513 -0.32726091
1.955422 0.19621116 0.24130133
2.0384152 0.20417954 -0.25153834
1.9714719 0.19712757 0.31380758
2.0102587 0.20100585 -0.17675185
1.9633149 0.19596492 0.38352609
1.9556197 0.19485214 -0.10299717
1.9895906 0.19788624 0.46159956
1.9501135 0.19361612 -0.034206714
2.049314 0.20310402 0.55180228
2.0514832 0.20078848 -0.55231988
1.9484251 0.1903584 0.034171812
2.0520325 0.20011915 -0.47599643
1.967984 0.19157583 0.10362521
2.0556269 0.20010751 -0.40146214
1.9731343 0.19172958 0.17343993
2.0546267 0.19928624 -0.32694808
1.9481915 0.18861949 0.24032637
2.0351636 0.19668142 -0.25105089
1.9721482 0.19024412 0.31380758
2.0109482 0.19398698 -0.17675185
1.9600786 0.18873456 0.38276285
1.9642403 0.18878931 -0.10341586
1.9825101 0.1901961 0.45979998
1.9686929 0.18852285 -0.034520861
2.0596259 0.19686888 0.55439043
2.0637114 0.19471548 -0.5554257
1.9530596 0.18393046 0.034241624
2.0527184 0.19295447 -0.47599643
1.9646636 0.18433239 0.10341586
2.0582676 0.19311467 -0.40184379
1.9817265 0.18558346 0.17413718
2.0651438 0.19303171 -0.32851243
1.9527911 0.1821871 0.24081384
2.0338609 0.18939155 -0.25080714
1.9688665 0.18299273 0.31318185
2.0155807 0.18733449 -0.17710046
1.9724547 0.18297997 0.38505259
1.9847749 0.18377256 -0.10446258
1.971519 0.18219818 0.45710054
1.9693389 0.18165103 -0.034520861
2.0603006 0.18967769 0.55439043
2.0720742 0.18820907 -0.55749625
1.9696218 0.17855662 0.034520861
2.0611427 0.18649079 -0.47779605
1.9752408 0.17837092 0.10393922
2.0608842 0.18610482 -0.40222538
1.9922838 0.17955942 0.17500873
2.0776095 0.18688409 -0.33038962
1.9633008 0.17625645 0.24203253
2.0424185 0.18299897 -0.25178206
1.9635906 0.17559157 0.31224322
2.0102689 0.17976572 -0.17657752
1.9769922 0.17644222 0.3858158
1.9933622 0.17755157 -0.10488127
1.9682608 0.17497049 0.45620075
1.9779284 0.17548199 -0.034660477
2.0436311 0.18095069 0.54973167
2.0842657 0.18198371 -0.56060207
1.9801939 0.17254862 0.034695383
2.1025507 0.18283975 -0.48724398
1.9977392 0.17337492 0.10509061
2.065433 0.17924978 -0.40298861
1.9869436 0.17208864 0.17448579
2.0821855 0.17997038 -0.33101538
1.9836816 0.17110854 0.24446991
2.0489781 0.17638066 -0.25251329
1.9720643 0.16941208 0.31349471
2.0188246 0.17342906 -0.17727478
1.9756401 0.16937193 0.38543418
1.9939697 0.17059374 -0.10488127
1.9805099 0.16909306 0.45890018
1.986499 0.1692552 -0.034800097
2.0211513 0.17185335 0.54352003
1.9708204 0.16480172 0.034520861
2.0003223 0.16656563 0.10519528
2.0797417 0.17317884 -0.40565994
1.9855466 0.16498634 0.17431147
2.0690203 0.17155989 -0.32882527
1.9842669 0.16418263 0.24446991
2.0673866 0.1706969 -0.25470695
1.9667374 0.16204201 0.31255612
2.0353029 0.1676912 -0.17866927
1.9683927 0.16183159 0.38390771
1.9905715 0.16330528 -0.10467192
1.9849724 0.16249813 0.45979998
1.9950498 0.16297165 -0.034939718
2.0255899 0.16511054 0.54455531
1.9793569 0.1585604 0.034660477
1.998901 0.15942289 0.10509061
2.0920756 0.16685405 -0.40794963
1.9861103 0.1580549 0.17431147
2.0715759 0.16449244 -0.32913816
1.9769124 0.15662758 0.24349497
2.0659909 0.1633233 -0.2544632
1.975168 0.1557966 0.31380758
2.0418344 0.16105509 -0.1791922
1.9669883 0.15480505 0.38352609
1.9851561 0.15588725 -0.10435791
1.9816419 0.15526332 0.45890018
1.993613 0.15585025 -0.034904812
2.026154 0.15803935 0.54455531
1.9818921 0.15180236 0.034695383
1.9914526 0.15218505 0.10467192
2.0985181 0.15999955 -0.40909451
1.9985698 0.15202731 0.17535736
2.0938044 0.15890409 -0.33257973
1.9754674 0.14957739 0.24325122
2.064569 0.15596059 -0.25421947
1.9717343 0.14894772 0.31318185
2.0562916 0.15497439 -0.1804124
1.9714322 0.1482338 0.38428935
1.9856882 0.14895627 -0.10435791
1.9705119 0.14747201 0.45620075
1.9961128 0.14938797 -0.034939718
2.0305197 0.15160757 0.54559058
1.9843791 0.14537585 0.034730289
1.9919716 0.14523308 0.10467192
1.993127 0.14461699 0.17483442
2.1179624 0.15367478 -0.33633414
1.9779327 0.14316846 0.24349497
2.0690348 0.14939973 -0.25470695
1.9663314 0.14163788 0.31224322
2.0488708 0.14722487 -0.17971513
1.9797457 0.14225778 0.3858158
1.9881634 0.14251387 -0.10446258
1.9709902 0.1409362 0.45620075
1.9806652 0.14128153 -0.034660477
2.0310366 0.14451827 0.54559058
1.9808847 0.13817032 0.034660477
1.9924664 0.13827839 0.10467192
1.9717317 0.13649456 0.17291699
2.1342511 0.14737083 -0.33883709
1.9823811 0.13653558 0.24398245
2.0774653 0.14272118 -0.2556819
1.9668138 0.13477458 0.31224322
2.0394335 0.13939224 -0.17884357
1.9723955 0.1348103 0.38428935
1.9846635 0.1353008 -0.10425323
1.9753586 0.13432011 0.45710054
1.9671806 0.13341913 -0.034416147
2.0199642 0.1366449 0.54248476
1.9653924 0.13019693 0.034381241
1.9849653 0.13079767 0.10425323
1.9742068 0.12939668 0.17309129
2.1584311 0.14109309 -0.34259152
1.9650178 0.12844999 0.24178879
2.0779507 0.13546805 -0.2556819
1.9712147 0.1281641 0.31286895
2.031955 0.1317572 -0.17814633
1.9650397 0.12707385 0.38276285
1.9771736 0.12751202 -0.10383455
1.987506 0.12783009 0.45979998
1.9756167 0.12706539 -0.034555767
2.0185008 0.12946984 0.54196709
1.9578732 0.12249351 0.034241624
1.9734496 0.12312228 0.10362521
1.976635 0.12262841 0.17326561
1.9535877 0.12051314 0.24032637
2.0586197 0.12663274 -0.25324452
1.97165 0.12128292 0.31286895
2.0244477 0.12417506 -0.17744908
1.9654713 0.12021329 0.38276285
1.9696324 0.12012371 -0.10341586
1.9801594 0.12041792 0.45800033
1.9720562 0.11992514 -0.034485955
2.0285821 0.12300728 0.54455531
2.0827489 0.12337345 -0.55904913
1.962261 0.11623624 0.034311432
1.9599106 0.11541053 0.1028925
2.0970712 0.12312006 -0.40833127
1.97904 0.11584383 0.17343993
2.1179292 0.12397376 -0.33602124
1.9619033 0.11449715 0.24130133
2.0530832 0.11945891 -0.25251329
1.9661453 0.11405612 0.31193036
2.0248687 0.1171081 -0.17744908
1.969779 0.11392199 0.38352609
1.9740078 0.1138209 -0.10362521
1.9766568 0.11362753 0.45710054
1.9604841 0.11235458 -0.034276526
2.0367136 0.11636664 0.54662579
2.090862 0.11689791 -0.56111974
1.9586618 0.1091629 0.034241624
2.120856 0.11783227 -0.49039328
1.9603015 0.10856888 0.1028925
2.0974679 0.11616567 -0.40833127
1.9814026 0.10938974 0.17361423
2.1025701 0.11571112 -0.33351833
1.9662552 0.10786601 0.24178879
2.057452 0.11250781 -0.2530008
1.9566692 0.1066542 0.310366
2.0093305 0.10952467 -0.17605458
1.9701647 0.1070459 0.38352609
1.9783818 0.10714513 -0.10383455
1.9731497 0.1065164 0.45620075
1.9568707 0.10529604 -0.034206714
2.0371075 0.10925593 0.54662579
2.0758238 0.10878933 -0.55697864
1.9590307 0.10232657 0.034241624
2.1232007 0.11052913 -0.49084321
1.9666524 0.10203542 0.10320652
2.0939393 0.10863942 -0.40756804
1.969834 0.10185673 0.17256837
2.0852065 0.10745656 -0.33070248
1.9646373 0.1008995 0.24154507
2.0538671 0.10512377 -0.25251329
1.9570295 0.099823914 0.310366
1.9898026 0.1014956 -0.17431147
1.9666049 0.099968225 0.38276285
1.982733 0.10044115 -0.10404389
1.9735094 0.09962859 0.45620075
1.9572264 0.098464124 -0.034206714
2.0432649 0.10243506 0.54817873
2.0723314 0.10135437 -0.55594331
1.9553814 0.095292456 0.034171812
2.0710194 0.10056461 -0.47869584
1.980961 0.09584596 0.10393922
2.0766571 0.10047608 -0.40413347
1.9661974 0.094787702 0.17221974
2.0697839 0.099418417 -0.32819954
1.9629947 0.093946554 0.24130133
2.0601702 0.098236881 -0.25324452
1.9632856 0.093272701 0.31130463
2.0020854 0.095116034 -0.17535736
1.9551756 0.092546351 0.38047317
1.9730964 0.093049504 -0.10352053
1.9816315 0.093104459 0.45800033
1.9575582 0.091631941 -0.034206714
2.0493991 0.095572516 0.54973167
2.0610938 0.093593612 -0.55283749
1.9517069 0.088285074 0.034102004
2.0518901 0.092458993 -0.47419682
1.977293 0.088750899 0.10372987
2.0632663 0.092609808 -0.40146214
1.9764682 0.088368244 0.17309129
2.0622246 0.091842793 -0.32694808
1.9514118 0.086565487 0.23983888
2.0446351 0.090343378 -0.25129461
1.9635992 0.086420342 0.31130463
2.0163386 0.088741466 -0.17657752
1.9594096 0.085892387 0.3812364
1.9694185 0.085986778 -0.10331119
1.989732 0.086526722 0.45979998
1.969853 0.085316882 -0.034416147
2.0960419 0.090415791 0.56215501
2.0478969 0.085831657 -0.54921407
1.9679867 0.082139336 0.034381241
2.0424652 0.084890828 -0.47194731
1.9656175 0.081352241 0.10310185
2.0478842 0.084757067 -0.39840919
1.9767647 0.081468962 0.17309129
2.0625327 0.084643178 -0.32694808
1.9477352 0.079590641 0.23935141
2.0409713 0.083044745 -0.25080714
1.9540201 0.079165228 0.30974028
2.0146456 0.081621408 -0.17640322
1.9596975 0.079051726 0.3812364
1.9717022 0.079192266 -0.10341586
1.9744445 0.078957275 0.45620075
1.9661427 0.078280658 -0.034346335
2.0366013 0.078239083 -0.54610825
1.9682615 0.07526876 0.034381241
2.0505385 0.078057729 -0.47374693
1.9718769 0.074718691 0.10341586
2.0403204 0.077312171 -0.39688274
1.975046 0.074492648 0.17291699
2.0647895 0.07751663 -0.32726091
1.9519686 0.072940886 0.23983888
2.0412486 0.075919382 -0.25080714
1.9523104 0.072270341 0.30942741
2.010936 0.074440531 -0.17605458
1.9638852 0.072356544 0.38199964
1.9719666 0.072308734 -0.10341586
1.9747081 0.072064169 0.45620075
1.966404 0.071418419 -0.034346335
2.0175552 0.070454791 -0.54093182
1.9645151 0.068260252 0.034311432
2.0488508 0.070831656 -0.47329703
1.9741099 0.068247758 0.10352053
2.0386157 0.070121616 -0.39650109
1.9593642 0.067053266 0.1715225
2.0532022 0.069905832 -0.32538372
1.9641151 0.06652949 0.24130133
2.0434854 0.068860918 -0.25105089
1.9545138 0.065862775 0.30974028
2.0032184 0.067154013 -0.17535736
1.9641259 0.065500341 0.38199964
1.9881763 0.065954074 -0.10425323
1.9749476 0.065171123 0.45620075
1.9706272 0.065028556 -0.034416147
2.0216508 0.063533574 -0.54196709
1.9607334 0.061619148 0.034241624
2.0373876 0.063672207 -0.47059759
1.9823213 0.061604038 0.10393922
2.0466974 0.063248076 -0.3980276
1.9695436 0.060519777 0.17239405
2.0435505 0.062793851 -0.3238194
1.9722614 0.060257822 0.24227627
2.0476708 0.062205058 -0.25153834
1.9626294 0.059278797 0.31099173
1.9994578 0.060040932 -0.17500873
1.9564828 0.058750451 0.38047317
1.9803987 0.05912362 -0.10383455
1.9868401 0.058968876 0.45890018
1.9788375 0.058384761 -0.034555767
2.0237815 0.056883872 -0.54248476
1.9649342 0.054885678 0.034311432
2.0298057 0.056343183 -0.46879801
1.9765347 0.054519281 0.10362521
2.0508208 0.056568336 -0.39879084
1.9996082 0.054806478 0.17500873
2.0417826 0.055605818 -0.3235065
1.9684911 0.053266004 0.24178879
2.0339847 0.054682985 -0.24983218
1.9647993 0.052479804 0.31130463
2.0076127 0.053623352 -0.17570597
1.9566759 0.051921107 0.38047317
1.9805931 0.052209854 -0.10383455
1.9792416 0.051828571 0.45710054
1.9950212 0.051893361 -0.034835003
2.0258987 0.049866203 -0.54300237
1.9731103 0.048221346 0.034451049
2.0241454 0.049116105 -0.46744829
1.9807065 0.047716171 0.10383455
2.0510058 0.049409721 -0.39879084
2.0157218 0.048206761 0.17640322
2.0360398 0.048338104 -0.32256791
1.968665 0.046394777 0.24178879
2.0242407 0.047350071 -0.24861349
1.9550962 0.045392219 0.30974028
2.0157552 0.046800558 -0.17640322
1.9607707 0.04518158 0.3812364
1.9847566 0.045386769 -0.10404389
1.9755141 0.044831403 0.45620075
1.9871935 0.044749465 -0.034695383
2.0183349 0.042631436 -0.54093182
1.977265 0.041417785 0.034520861
2.0320978 0.042211559 -0.46924794
1.9968355 0.041131388 0.10467192
2.0452771 0.042129207 -0.39764598
1.991974 0.040682513 0.17431147
2.0579209 0.041670062 -0.32600945
1.9707997 0.039561886 0.24203253
2.0164547 0.040126305 -0.24763852
1.9572177 0.038605817 0.31005314
2.0119219 0.039684851 -0.17605458
1.9648423 0.038413167 0.38199964
1.9968842 0.038690966 -0.10467192
1.9834518 0.038084414 0.45800033
1.9813397 0.037697945 -0.034590669
2.0030189 0.035312913 -0.53679073
1.9853952 0.034655605 0.034660477
2.0322328 0.03511839 -0.46924794
2.0149398 0.034467798 0.10561397
2.041486 0.034921903 -0.39688274
1.9960883 0.033796862 0.17466012
2.0639791 0.034586042 -0.32694808
1.9848194 0.032913074 0.2437387
2.0245218 0.033218019 -0.24861349
1.9553655 0.031741966 0.30974028
2.0040798 0.032532755 -0.17535736
1.9649644 0.031554766 0.38199964
2.0049953 0.031847607 -0.10509061
1.9874699 0.031221336 0.45890018
1.9874574 0.030875148 -0.034695383
2.0089252 0.028402256 -0.53834367
1.977506 0.027613806 0.034520861
2.0284457 0.027970081 -0.46834809
2.0270302 0.027596734 0.10624201
2.0415955 0.027795032 -0.39688274
1.9981861 0.026856201 0.17483442
2.0542111 0.027249644 -0.32538372
1.9730127 0.025828131 0.24227627
2.0385199 0.02633081 -0.25031966
1.9594147 0.024966085 0.310366
2.0141423 0.025663402 -0.17622891
1.9591731 0.024621032 0.38085476
2.0090885 0.024898594 -0.10529996
2.0031555 0.024474462 0.46249935
1.9995503 0.0240814 -0.034904812
2.0186706 0.021492882 -0.54093182
2.0015855 0.020961614 0.034939718
2.016839 0.020769337 -0.46564871
2.0231197 0.020480899 0.10603265
2.0456061 0.020708539 -0.39764598
2.0002601 0.019900355 0.17500873
2.0503433 0.020040762 -0.32475799
1.9671359 0.018884122 0.24154507
2.0405843 0.019233052 -0.25056338
1.9634404 0.018162321 0.31099173
2.0241811 0.018724188 -0.17710046
1.9553208 0.017746869 0.38009155
2.0051689 0.017849324 -0.10509061
1.9915367 0.017379431 0.45979998
2.01162 0.017204551 -0.035114244
2.0264604 0.014501031 -0.54300237
2.0136445 0.014057879 0.03514915
2.0246942 0.013782616 -0.46744829
2.0091987 0.013325508 0.10529996
2.0417399 0.01354133 -0.39688274
2.0003173 0.012917491 0.17500873
2.0543513 0.012908862 -0.32538372
1.9671898 0.012016898 0.24154507
2.0406392 0.012109424 -0.25056338
1.9634919 0.011309873 0.31099173
2.0421655 0.01176304 -0.17866927
1.9671502 0.010986686 0.38238126
2.0172021 0.010914172 -0.10571864
1.9915853 0.010428933 0.45979998
2.011668 0.010182046 -0.035114244
2.0264988 0.0074286698 -0.54300237
2.0296786 0.0070851296 0.035428386
2.0364225 0.0067532654 -0.47014773
2.0132272 0.0063259476 0.1055093
2.029995 0.0063786348 -0.39459303
1.9963655 0.005923599 0.17466012
2.0622852 0.0057592769 -0.32663518
1.9692049 0.0051547228 0.24178879
2.0486093 0.0050060237 -0.25153834
1.9536426 0.0044330047 0.30942741
2.0402017 0.0046294159 -0.17849496
1.9711032 0.0041276813 0.3831445
2.0292115 0.0038961892 -0.10634667
2.001353 0.0034934173 0.46204948
2.0196898 0.0031719797 -0.03525386
2.0110576 0.00035158193 -0.53886127
2.0256915 -0 0.035358574
2.0383823 -0.00035576482 -0.47059759
2.0172315 -0.00070414669 0.10571864
2.0339313 -0.00070997601 -0.39535624
1.9963741 -0.0010452991 0.17466012
2.0504408 -0.0014314778 -0.32475799
1.9950171 -0.0017409811 0.24495739
2.0486143 -0.0021453046 -0.25153834
1.9753752 -0.0024133774 0.31286895
2.0362206 -0.0024877142 -0.17814633
1.9750321 -0.0027576666 0.38390771
2.0451908 -0.0032125807 -0.10718405
2.0208406 -0.0035270355 0.4665485
2.0316868 -0.0039005633 -0.035463288
2.0226376 -0.0067073451 -0.54196709
2.0216796 -0.0070570218 0.035288766
2.050061 -0.0075138998 -0.47329703
2.0212114 -0.0077609327 0.10592799
2.0378432 -0.0078247944 -0.39611951
2.0362058 -0.0081738969 0.17814633
2.0464725 -0.0085722934 -0.32413223
2.0029392 -0.0087395264 0.24593236
2.0605047 -0.009350338 -0.2530008
1.9793057 -0.0093273278 0.31349471
2.0421767 -0.009623602 -0.17866927
1.963231 -0.0095942328 0.38161799
2.0451672 -0.01035161 -0.10718405
2.0325081 -0.010642285 0.46924794
2.065655 -0.011176378 -0.036056671
2.0380564 -0.013872824 -0.54610825
2.027642 -0.01415584 0.03539348
2.0461249 -0.014642014 -0.47239724
2.0291607 -0.014874792 0.10634667
2.0436928 -0.014981318 -0.39726433
2.0401495 -0.015311437 0.17849496
2.0444548 -0.015700594 -0.3238194
1.9870162 -0.015606308 0.24398245
2.0525193 -0.016479034 -0.25202581
1.9851868 -0.016284946 0.31443331
2.0540843 -0.016850129 -0.17971513
1.9631854 -0.016447129 0.38161799
2.0491128 -0.017524673 -0.10739339
2.0875993 -0.018582586 -0.036440626
2.0418589 -0.021026667 -0.54714346
2.0255804 -0.021212602 0.035358574
2.0655477 -0.021991704 -0.47689623
2.0514808 -0.022200026 -0.39879084
2.0360992 -0.022388982 0.17814633
2.0443876 -0.022836979 -0.3238194
1.9889346 -0.022564715 0.2442262
2.0504642 -0.023620695 -0.25178206
1.9831429 -0.023191344 0.31412044
2.0679591 -0.024183206 -0.18093532
1.9827472 -0.023532825 0.38543418
2.0690103 -0.024917824 -0.10844011
2.0915208 -0.025919111 -0.036510434
2.0379097 -0.028100686 -0.54610825
2.0454891 -0.028562268 0.035707623
2.0713041 -0.029284321 -0.47824594
2.0649545 -0.029555026 0.10823077
2.0808365 -0.029782342 -0.40451509
2.0399928 -0.029553879 0.17849496
2.0758977 -0.03043643 -0.32882527
1.9848739 -0.029448356 0.2437387
2.0583088 -0.030897189 -0.25275704
1.9790995 -0.030053677 0.31349471
2.0798147 -0.031583089 -0.18198119
1.9944311 -0.030634673 0.38772389
2.1068542 -0.032729305 -0.11042888
2.0994155 -0.033346765 -0.036650054
2.0339365 -0.035147391 -0.54507297
2.0773673 -0.036260579 0.0362661
2.0770345 -0.036617398 -0.47959566
2.0628417 -0.036727324 0.10812609
2.0944605 -0.037290271 -0.40718642
2.0259328 -0.036423896 0.17727478
2.0994797 -0.03811273 -0.33257973
1.9966676 -0.036594938 0.24520114
2.1316242 -0.039440587 -0.26177537
1.9829326 -0.037035614 0.31412044
2.123517 -0.039661337 -0.18581605
1.9903865 -0.037522346 0.38696066
2.1366806 -0.040653307 -0.11199896
2.1012855 -0.040713619 -0.036684956
2.0434585 -0.042447545 -0.54766113
2.0612338 -0.043176692 0.035986863
2.0691006 -0.043702763 -0.47779605
2.0627007 -0.043927763 0.10812609
2.108057 -0.044893682 -0.40985772
2.0257933 -0.043495499 0.17727478
2.1388321 -0.046296008 -0.33883709
1.9925585 -0.043477781 0.24471366
1.9827912 -0.043957118 0.31412044
2.1393006 -0.047426824 -0.18721053
1.9863179 -0.044382147 0.38619745
2.1564932 -0.048561107 -0.11304568
2.1091273 -0.048231099 -0.03682458
2.0510228 -0.049767729 -0.54973167
2.0550733 -0.050224911 0.035882145
2.0689356 -0.050925005 -0.47779605
2.0425684 -0.050632719 0.10707937
2.1039624 -0.052154601 -0.40909451
2.0316045 -0.050715741 0.17779772
2.1584051 -0.05425806 -0.34196579
1.9904101 -0.05038261 0.24446991
1.9944738 -0.051182128 0.31599763
2.1431057 -0.054996312 -0.18755916
1.9900759 -0.051416833 0.38696066
2.1403377 -0.055672903 -0.1122083
2.1289361 -0.056119978 -0.037173625
2.0566299 -0.057087649 -0.55128461
2.0488889 -0.057230648 0.035777435
2.1057568 -0.059186924 -0.48634419
2.0364003 -0.05723751 0.10676537
2.1155424 -0.059831496 -0.41138422
2.0433643 -0.058147091 0.17884357
1.9862536 -0.057215814 0.24398245
1.9962678 -0.057852987 0.31631052
2.1648076 -0.063115507 -0.18947658
1.9977338 -0.058593407 0.38848713
2.1421268 -0.063202634 -0.11231297
2.1047528 -0.062467601 -0.036754768
2.0641415 -0.064507648 -0.5533551
2.0626788 -0.064461932 0.036021769
2.0361881 -0.064345524 0.10676537
2.1388676 -0.067963973 -0.41596362
2.0272179 -0.064770401 0.17744908
1.9920051 -0.063993365 0.24471366
1.9842075 -0.064436212 0.31443331
2.1307216 -0.069566466 -0.18651329
2.0171506 -0.065858454 0.39230329
2.1379132 -0.070174798 -0.11210363
2.09253 -0.069416374 -0.03654534
2.0716393 -0.071619228 -0.5554257
2.0504501 -0.071244992 0.035812337
2.0479271 -0.071873061 0.10739339
2.0210187 -0.071281873 0.17692617
2.001689 -0.071299694 0.24593236
1.9997634 -0.071930058 0.31693625
2.1185322 -0.076202087 -0.18546741
2.0267181 -0.073253788 0.39421138
2.1356592 -0.07756459 -0.11199896
2.0982702 -0.076940075 -0.036650054
2.0401978 -0.078019895 0.035637815
2.0556469 -0.079329304 0.10781208
2.0227485 -0.078413278 0.17710046
2.0014279 -0.078286462 0.24593236
1.9995002 -0.078910097 0.31693625
2.1301987 -0.084068097 -0.18651329
2.1333797 -0.084939495 -0.11189428
2.0979888 -0.084263936 -0.036650054
2.0479052 -0.085474603 0.035777435
2.049371 -0.086252399 0.10749806
2.0383873 -0.086146526 0.17849496
1.993209 -0.08493422 0.24495739
2.0011864 -0.085973963 0.31724915
2.1230934 -0.091953754 -0.11137092
2.1176598 -0.092459023 -0.036999103
2.0675707 -0.093526229 0.036126483
2.0570381 -0.093769304 0.10791675
1.9909176 -0.091799863 0.24471366
2.1293089 -0.10041567 -0.037208531
2.0852075 -0.10161885 0.036440626
2.0666726 -0.10143872 0.10844011
2.0004983 -0.099240683 0.24593236
